1.4705 1.4705 0.1872
1.4705 4.4115 0.1194
1.4705 7.3525 0.0391
1.4705 10.2935 0.0156
1.4705 13.2345 0.0016
1.4705 16.1755 0.0000
1.4705 19.1165 0.0000
1.4705 22.0575 0.0000
1.4705 24.9985 0.0000
1.4705 27.9395 0.0000
1.4705 30.8805 0.0000
1.4705 33.8215 0.0000
1.4705 36.7625 0.0000
1.4705 39.7035 0.0200
1.4705 42.6445 0.0969
1.4705 45.5855 0.2041
1.4705 48.5265 0.1921
4.4115 1.4705 0.1659
4.4115 4.4115 0.1029
4.4115 7.3525 0.0401
4.4115 10.2935 0.0036
4.4115 13.2345 0.0000
4.4115 16.1755 0.0021
4.4115 19.1165 0.0241
4.4115 22.0575 0.0645
4.4115 24.9985 0.0845
4.4115 27.9395 0.0666
4.4115 30.8805 0.0278
4.4115 33.8215 0.0030
4.4115 36.7625 0.0000
4.4115 39.7035 0.0000
4.4115 42.6445 0.0356
4.4115 45.5855 0.1186
4.4115 48.5265 0.1339
7.3525 1.4705 0.0987
7.3525 4.4115 0.0911
7.3525 7.3525 0.0296
7.3525 10.2935 0.0000
7.3525 13.2345 0.0000
7.3525 16.1755 0.0000
7.3525 19.1165 0.0000
7.3525 22.0575 0.0284
7.3525 24.9985 0.0604
7.3525 27.9395 0.0817
7.3525 30.8805 0.0820
7.3525 33.8215 0.0452
7.3525 36.7625 0.0075
7.3525 39.7035 0.0000
7.3525 42.6445 0.0000
7.3525 45.5855 0.0000
7.3525 48.5265 0.0147
10.2935 1.4705 0.0756
10.2935 4.4115 0.0826
10.2935 7.3525 0.0216
10.2935 10.2935 0.0391
10.2935 13.2345 0.0754
10.2935 16.1755 0.0713
10.2935 19.1165 0.0294
10.2935 22.0575 0.0220
10.2935 24.9985 0.0387
10.2935 27.9395 0.0862
10.2935 30.8805 0.1146
10.2935 33.8215 0.0742
10.2935 36.7625 0.0169
10.2935 39.7035 0.0000
10.2935 42.6445 0.0000
10.2935 45.5855 0.0076
10.2935 48.5265 0.0260
13.2345 1.4705 0.0466
13.2345 4.4115 0.0594
13.2345 7.3525 0.0732
13.2345 10.2935 0.1439
13.2345 13.2345 0.1739
13.2345 16.1755 0.1286
13.2345 19.1165 0.0464
13.2345 22.0575 0.0232
13.2345 24.9985 0.0175
13.2345 27.9395 0.0440
13.2345 30.8805 0.0652
13.2345 33.8215 0.0411
13.2345 36.7625 0.0095
13.2345 39.7035 0.0000
13.2345 42.6445 0.0000
13.2345 45.5855 0.0357
13.2345 48.5265 0.0649
16.1755 1.4705 0.0119
16.1755 4.4115 0.0361
16.1755 7.3525 0.0906
16.1755 10.2935 0.1463
16.1755 13.2345 0.1352
16.1755 16.1755 0.0653
16.1755 19.1165 0.0018
16.1755 22.0575 0.0048
16.1755 24.9985 0.0000
16.1755 27.9395 0.0007
16.1755 30.8805 0.0048
16.1755 33.8215 0.0000
16.1755 36.7625 0.0000
16.1755 39.7035 0.0000
16.1755 42.6445 0.0023
16.1755 45.5855 0.0507
16.1755 48.5265 0.0785
19.1165 1.4705 0.0000
19.1165 4.4115 0.0115
19.1165 7.3525 0.0381
19.1165 10.2935 0.0613
19.1165 13.2345 0.0354
19.1165 16.1755 0.0041
19.1165 19.1165 0.0085
19.1165 22.0575 0.0279
19.1165 24.9985 0.0191
19.1165 27.9395 0.0000
19.1165 30.8805 0.0000
19.1165 33.8215 0.0000
19.1165 36.7625 0.0000
19.1165 39.7035 0.0000
19.1165 42.6445 0.0000
19.1165 45.5855 0.0305
19.1165 48.5265 0.0505
22.0575 1.4705 0.0000
22.0575 4.4115 0.0000
22.0575 7.3525 0.0082
22.0575 10.2935 0.0201
22.0575 13.2345 0.0000
22.0575 16.1755 0.0000
22.0575 19.1165 0.0215
22.0575 22.0575 0.0647
22.0575 24.9985 0.0592
22.0575 27.9395 0.0000
22.0575 30.8805 0.0000
22.0575 33.8215 0.0000
22.0575 36.7625 0.0000
22.0575 39.7035 0.0088
22.0575 42.6445 0.0027
22.0575 45.5855 0.0002
22.0575 48.5265 0.0116
24.9985 1.4705 0.0000
24.9985 4.4115 0.0000
24.9985 7.3525 0.0260
24.9985 10.2935 0.0444
24.9985 13.2345 0.0070
24.9985 16.1755 0.0000
24.9985 19.1165 0.0199
24.9985 22.0575 0.1052
24.9985 24.9985 0.2037
24.9985 27.9395 0.0556
24.9985 30.8805 0.0000
24.9985 33.8215 0.0000
24.9985 36.7625 0.0067
24.9985 39.7035 0.0461
24.9985 42.6445 0.0392
24.9985 45.5855 0.0009
24.9985 48.5265 0.0108
27.9395 1.4705 0.0000
27.9395 4.4115 0.0034
27.9395 7.3525 0.0745
27.9395 10.2935 0.1129
27.9395 13.2345 0.0382
27.9395 16.1755 0.0000
27.9395 19.1165 0.0000
27.9395 22.0575 0.0503
27.9395 24.9985 0.1301
27.9395 27.9395 0.0279
27.9395 30.8805 0.0000
27.9395 33.8215 0.0000
27.9395 36.7625 0.0287
27.9395 39.7035 0.1051
27.9395 42.6445 0.0906
27.9395 45.5855 0.0271
27.9395 48.5265 0.0343
30.8805 1.4705 0.0088
30.8805 4.4115 0.0393
30.8805 7.3525 0.1325
30.8805 10.2935 0.1698
30.8805 13.2345 0.0649
30.8805 16.1755 0.0000
30.8805 19.1165 0.0000
30.8805 22.0575 0.0000
30.8805 24.9985 0.0145
30.8805 27.9395 0.0000
30.8805 30.8805 0.0000
30.8805 33.8215 0.0000
30.8805 36.7625 0.0550
30.8805 39.7035 0.1510
30.8805 42.6445 0.1213
30.8805 45.5855 0.0508
30.8805 48.5265 0.0627
33.8215 1.4705 0.0413
33.8215 4.4115 0.0844
33.8215 7.3525 0.1434
33.8215 10.2935 0.1565
33.8215 13.2345 0.0597
33.8215 16.1755 0.0000
33.8215 19.1165 0.0000
33.8215 22.0575 0.0000
33.8215 24.9985 0.0000
33.8215 27.9395 0.0000
33.8215 30.8805 0.0000
33.8215 33.8215 0.0000
33.8215 36.7625 0.0612
33.8215 39.7035 0.1367
33.8215 42.6445 0.0967
33.8215 45.5855 0.0693
33.8215 48.5265 0.0839
36.7625 1.4705 0.0451
36.7625 4.4115 0.0883
36.7625 7.3525 0.0874
36.7625 10.2935 0.0751
36.7625 13.2345 0.0276
36.7625 16.1755 0.0000
36.7625 19.1165 0.0000
36.7625 22.0575 0.0000
36.7625 24.9985 0.0000
36.7625 27.9395 0.0000
36.7625 30.8805 0.0000
36.7625 33.8215 0.0000
36.7625 36.7625 0.0401
36.7625 39.7035 0.0730
36.7625 42.6445 0.0477
36.7625 45.5855 0.0598
36.7625 48.5265 0.0808
39.7035 1.4705 0.0195
39.7035 4.4115 0.0381
39.7035 7.3525 0.0288
39.7035 10.2935 0.0060
39.7035 13.2345 0.0000
39.7035 16.1755 0.0000
39.7035 19.1165 0.0000
39.7035 22.0575 0.0000
39.7035 24.9985 0.0000
39.7035 27.9395 0.0000
39.7035 30.8805 0.0016
39.7035 33.8215 0.0183
39.7035 36.7625 0.0338
39.7035 39.7035 0.0303
39.7035 42.6445 0.0086
39.7035 45.5855 0.0343
39.7035 48.5265 0.0505
42.6445 1.4705 0.0000
42.6445 4.4115 0.0114
42.6445 7.3525 0.0131
42.6445 10.2935 0.0000
42.6445 13.2345 0.0000
42.6445 16.1755 0.0000
42.6445 19.1165 0.0000
42.6445 22.0575 0.0000
42.6445 24.9985 0.0000
42.6445 27.9395 0.0000
42.6445 30.8805 0.0152
42.6445 33.8215 0.0439
42.6445 36.7625 0.0522
42.6445 39.7035 0.0264
42.6445 42.6445 0.0001
42.6445 45.5855 0.0053
42.6445 48.5265 0.0171
45.5855 1.4705 0.0000
45.5855 4.4115 0.0000
45.5855 7.3525 0.0000
45.5855 10.2935 0.0000
45.5855 13.2345 0.0077
45.5855 16.1755 0.0040
45.5855 19.1165 0.0000
45.5855 22.0575 0.0000
45.5855 24.9985 0.0000
45.5855 27.9395 0.0008
45.5855 30.8805 0.0161
45.5855 33.8215 0.0372
45.5855 36.7625 0.0369
45.5855 39.7035 0.0158
45.5855 42.6445 0.0000
45.5855 45.5855 0.0000
45.5855 48.5265 0.0035
48.5265 1.4705 0.0000
48.5265 4.4115 0.0000
48.5265 7.3525 0.0000
48.5265 10.2935 0.0115
48.5265 13.2345 0.0296
48.5265 16.1755 0.0261
48.5265 19.1165 0.0072
48.5265 22.0575 0.0000
48.5265 24.9985 0.0000
48.5265 27.9395 0.0000
48.5265 30.8805 0.0005
48.5265 33.8215 0.0048
48.5265 36.7625 0.0027
48.5265 39.7035 0.0000
48.5265 42.6445 0.0000
48.5265 45.5855 0.0000
48.5265 48.5265 0.0000
